ply
format ascii 1.0
comment created by gply, a Houdini tool.
comment converted from .[b]geo
comment for more information about Houdini, try:
comment www.sidefx.com
element vertex 437
property float x
property float y
property float z
property float w
property float dist
property float P1
property float P2
property float P3
property float P4
element face 0
property list uint int vertex_indices
end_header
-0.06500002 0.473568022 -0.164544806 4.59135442e-41 0.00254207477 -0.06500002 0.473568022 -0.164544806 1 
-0.06500002 0.473568022 0.268467903 4.59135442e-41 0.00118773594 -0.06500002 0.473568022 0.268467903 1 
-0.06500002 0.489897966 -0.129903793 4.59135442e-41 0.0025542255 -0.06500002 0.489897966 -0.129903793 1 
-0.06500002 0.489897966 0.233826876 4.59135442e-41 0.00646308297 -0.06500002 0.489897966 0.233826876 1 
-0.06500002 0.506227851 -0.11258328 4.59135442e-41 0.00718533481 -0.06500002 0.506227851 -0.11258328 1 
-0.06500002 0.506227851 0.216506362 4.59135442e-41 0.00220071105 -0.06500002 0.506227851 0.216506362 1 
-0.06500002 0.522557855 -0.11258328 4.59135442e-41 0.0028958288 -0.06500002 0.522557855 -0.11258328 1 
-0.06500002 0.522557855 0.216506362 4.59135442e-41 0.000836850668 -0.06500002 0.522557855 0.216506362 1 
-0.06500002 0.555217683 -0.0952627808 4.59135442e-41 0.00137733598 -0.06500002 0.555217683 -0.0952627808 1 
-0.06500002 0.555217683 0.199185848 4.59135442e-41 0.00814199354 -0.06500002 0.555217683 0.199185848 1 
-0.06500002 0.571547627 -0.0779422671 4.59135442e-41 0.00708795898 -0.06500002 0.571547627 -0.0779422671 1 
-0.06500002 0.587877572 0.181865335 4.59135442e-41 0.0069211321 -0.06500002 0.587877572 0.181865335 1 
-0.06500002 0.604207516 -0.0433012582 4.59135442e-41 0.00638035126 -0.06500002 0.604207516 -0.0433012582 1 
-0.06500002 0.604207516 0.164544851 4.59135442e-41 0.00826272741 -0.06500002 0.604207516 0.164544851 1 
-0.06500002 0.6205374 -0.0259807445 4.59135442e-41 0.00522441417 -0.06500002 0.6205374 -0.0259807445 1 
-0.06500002 0.6205374 0.147224337 4.59135442e-41 0.00514127687 -0.06500002 0.6205374 0.147224337 1 
-0.06500002 0.636867344 0.00866025407 4.59135442e-41 0.00379468896 -0.06500002 0.636867344 0.00866025407 1 
-0.06500002 0.636867344 0.0259807669 4.59135442e-41 0.00748872338 -0.06500002 0.636867344 0.0259807669 1 
-0.06500002 0.636867344 0.0433012806 4.59135442e-41 0.00928900577 -0.06500002 0.636867344 0.0433012806 1 
-0.06500002 0.636867344 0.0952628255 4.59135442e-41 0.00800338201 -0.06500002 0.636867344 0.0952628255 1 
-0.06500002 0.636867344 0.112583309 4.59135442e-41 0.00460833963 -0.06500002 0.636867344 0.112583309 1 
-0.06500002 0.816496611 -0.0779422671 4.59135442e-41 0.00151667593 -0.06500002 0.816496611 -0.0779422671 1 
-0.06500002 0.832826555 -0.0952627808 4.59135442e-41 0.00610369677 -0.06500002 0.832826555 -0.0952627808 1 
-0.06500002 0.832826555 -0.0779422671 4.59135442e-41 0.00359933847 -0.06500002 0.832826555 -0.0779422671 1 
-0.06500002 0.849156499 -0.11258328 4.59135442e-41 0.00533782318 -0.06500002 0.849156499 -0.11258328 1 
-0.06500002 0.849156499 -0.0952627808 4.59135442e-41 0.00595595362 -0.06500002 0.849156499 -0.0952627808 1 
-0.06500002 0.865486443 -0.129903793 4.59135442e-41 0.00153447385 -0.06500002 0.865486443 -0.129903793 1 
-0.06500002 0.881816328 -0.129903793 4.59135442e-41 0.00774439331 -0.06500002 0.881816328 -0.129903793 1 
-0.06500002 0.881816328 -0.11258328 4.59135442e-41 0.00363461929 -0.06500002 0.881816328 -0.11258328 1 
-0.06500002 0.898146272 -0.129903793 4.59135442e-41 0.00880461745 -0.06500002 0.898146272 -0.129903793 1 
-0.06500002 0.914476216 -0.129903793 4.59135442e-41 0.00269680796 -0.06500002 0.914476216 -0.129903793 1 
-0.0550000332 0.179629236 -0.0952627808 4.59135442e-41 0.006885143 -0.0550000332 0.179629236 -0.0952627808 1 
-0.0550000332 0.179629236 0.216506362 4.59135442e-41 0.0044476199 -0.0550000332 0.179629236 0.216506362 1 
-0.0550000332 0.179629236 0.233826876 4.59135442e-41 0.00607836433 -0.0550000332 0.179629236 0.233826876 1 
-0.0550000332 0.195959166 -0.129903793 4.59135442e-41 0.00138905074 -0.0550000332 0.195959166 -0.129903793 1 
-0.0550000332 0.195959166 -0.0779422671 4.59135442e-41 0.0037089379 -0.0550000332 0.195959166 -0.0779422671 1 
-0.0550000332 0.195959166 -0.060621772 4.59135442e-41 0.0011332084 -0.0550000332 0.195959166 -0.060621772 1 
-0.0550000332 0.195959166 -0.0433012582 4.59135442e-41 0.00148983602 -0.0550000332 0.195959166 -0.0433012582 1 
-0.0550000332 0.195959166 -0.0259807445 4.59135442e-41 0.00197535194 -0.0550000332 0.195959166 -0.0259807445 1 
-0.0550000332 0.195959166 -0.00866022985 4.59135442e-41 0.00253451918 -0.0550000332 0.195959166 -0.00866022985 1 
-0.0550000332 0.195959166 0.00866025407 4.59135442e-41 0.00303743547 -0.0550000332 0.195959166 0.00866025407 1 
-0.0550000332 0.195959166 0.0259807669 4.59135442e-41 0.00350478454 -0.0550000332 0.195959166 0.0259807669 1 
-0.0550000332 0.195959166 0.0433012806 4.59135442e-41 0.00376750785 -0.0550000332 0.195959166 0.0433012806 1 
-0.0550000332 0.195959166 0.0606217943 4.59135442e-41 0.00415437017 -0.0550000332 0.195959166 0.0606217943 1 
-0.0550000332 0.195959166 0.0779423118 4.59135442e-41 0.00432296004 -0.0550000332 0.195959166 0.0779423118 1 
-0.0550000332 0.195959166 0.0952628255 4.59135442e-41 0.00452725822 -0.0550000332 0.195959166 0.0952628255 1 
-0.0550000332 0.195959166 0.112583309 4.59135442e-41 0.00386428367 -0.0550000332 0.195959166 0.112583309 1 
-0.0550000332 0.195959166 0.129903823 4.59135442e-41 0.0033371998 -0.0550000332 0.195959166 0.129903823 1 
-0.0550000332 0.195959166 0.147224337 4.59135442e-41 0.00241528521 -0.0550000332 0.195959166 0.147224337 1 
-0.0550000332 0.195959166 0.164544851 4.59135442e-41 0.00125206797 -0.0550000332 0.195959166 0.164544851 1 
-0.0550000332 0.195959166 0.181865335 4.59135442e-41 0.000133714144 -0.0550000332 0.195959166 0.181865335 1 
-0.0550000332 0.195959166 0.199185848 4.59135442e-41 0.00274719158 -0.0550000332 0.195959166 0.199185848 1 
-0.0550000332 0.212289095 -0.129903793 4.59135442e-41 0.0011439973 -0.0550000332 0.212289095 -0.129903793 1 
-0.0550000332 0.228619039 -0.129903793 4.59135442e-41 0.00948124565 -0.0550000332 0.228619039 -0.129903793 1 
-0.0550000332 0.228619039 0.233826876 4.59135442e-41 0.00763837621 -0.0550000332 0.228619039 0.233826876 1 
-0.0550000332 0.244948968 -0.147224307 4.59135442e-41 0.00582203362 -0.0550000332 0.244948968 -0.147224307 1 
-0.0550000332 0.244948968 0.233826876 4.59135442e-41 0.00969931576 -0.0550000332 0.244948968 0.233826876 1 
-0.0550000332 0.261278898 0.251147389 4.59135442e-41 0.0053973305 -0.0550000332 0.261278898 0.251147389 1 
-0.0550000332 0.277608812 -0.164544806 4.59135442e-41 0.00479096873 -0.0550000332 0.277608812 -0.164544806 1 
-0.0550000332 0.277608812 0.251147389 4.59135442e-41 0.00936599914 -0.0550000332 0.277608812 0.251147389 1 
-0.0550000332 0.293938756 -0.164544806 4.59135442e-41 0.00741176028 -0.0550000332 0.293938756 -0.164544806 1 
-0.0550000332 0.293938756 0.268467903 4.59135442e-41 0.000618043938 -0.0550000332 0.293938756 0.268467903 1 
-0.0550000332 0.3102687 0.268467903 4.59135442e-41 0.00675862143 -0.0550000332 0.3102687 0.268467903 1 
-0.0550000332 0.326598644 0.268467903 4.59135442e-41 0.00637046807 -0.0550000332 0.326598644 0.268467903 1 
-0.0550000332 0.342928559 -0.18186532 4.59135442e-41 0.0015573242 -0.0550000332 0.342928559 -0.18186532 1 
-0.0550000332 0.342928559 0.268467903 4.59135442e-41 0.0061510792 -0.0550000332 0.342928559 0.268467903 1 
-0.0550000332 0.359258503 -0.18186532 4.59135442e-41 0.00619087182 -0.0550000332 0.359258503 -0.18186532 1 
-0.0550000332 0.375588417 -0.18186532 4.59135442e-41 0.0086121643 -0.0550000332 0.375588417 -0.18186532 1 
-0.0550000332 0.391918361 -0.18186532 4.59135442e-41 0.00778421899 -0.0550000332 0.391918361 -0.18186532 1 
-0.0550000332 0.391918361 0.285788417 4.59135442e-41 0.00271946262 -0.0550000332 0.391918361 0.285788417 1 
-0.0550000332 0.408248305 -0.18186532 4.59135442e-41 0.00948545989 -0.0550000332 0.408248305 -0.18186532 1 
-0.0550000332 0.408248305 0.285788417 4.59135442e-41 0.00368066668 -0.0550000332 0.408248305 0.285788417 1 
-0.0550000332 0.42457822 0.285788417 4.59135442e-41 0.00144148234 -0.0550000332 0.42457822 0.285788417 1 
-0.0550000332 0.440908164 -0.18186532 4.59135442e-41 0.00391198788 -0.0550000332 0.440908164 -0.18186532 1 
-0.0550000332 0.473568022 -0.164544806 4.59135442e-41 0.00287776836 -0.0550000332 0.473568022 -0.164544806 1 
-0.0550000332 0.473568022 0.268467903 4.59135442e-41 0.00412549684 -0.0550000332 0.473568022 0.268467903 1 
-0.0550000332 0.489897966 -0.129903793 4.59135442e-41 0.00412463862 -0.0550000332 0.489897966 -0.129903793 1 
-0.0550000332 0.489897966 0.233826876 4.59135442e-41 0.00906803459 -0.0550000332 0.489897966 0.233826876 1 
-0.0550000332 0.489897966 0.251147389 4.59135442e-41 0.00228721532 -0.0550000332 0.489897966 0.251147389 1 
-0.0550000332 0.506227851 -0.11258328 4.59135442e-41 0.00830967352 -0.0550000332 0.506227851 -0.11258328 1 
-0.0550000332 0.506227851 0.216506362 4.59135442e-41 0.00413952675 -0.0550000332 0.506227851 0.216506362 1 
-0.0550000332 0.522557855 -0.11258328 4.59135442e-41 0.00375530357 -0.0550000332 0.522557855 -0.11258328 1 
-0.0550000332 0.522557855 0.216506362 4.59135442e-41 0.000964509381 -0.0550000332 0.522557855 0.216506362 1 
-0.0550000332 0.555217683 -0.0952627808 4.59135442e-41 0.00401339494 -0.0550000332 0.555217683 -0.0952627808 1 
-0.0550000332 0.571547627 -0.0779422671 4.59135442e-41 0.00707162684 -0.0550000332 0.571547627 -0.0779422671 1 
-0.0550000332 0.571547627 0.199185848 4.59135442e-41 0.00234993012 -0.0550000332 0.571547627 0.199185848 1 
-0.0550000332 0.587877572 0.181865335 4.59135442e-41 0.00860445667 -0.0550000332 0.587877572 0.181865335 1 
-0.0550000332 0.604207516 -0.0433012582 4.59135442e-41 0.00943302643 -0.0550000332 0.604207516 -0.0433012582 1 
-0.0550000332 0.6205374 -0.0259807445 4.59135442e-41 0.00883564446 -0.0550000332 0.6205374 -0.0259807445 1 
-0.0550000332 0.6205374 0.147224337 4.59135442e-41 0.00755684124 -0.0550000332 0.6205374 0.147224337 1 
-0.0550000332 0.636867344 -0.00866022985 4.59135442e-41 0.00123953074 -0.0550000332 0.636867344 -0.00866022985 1 
-0.0550000332 0.636867344 0.00866025407 4.59135442e-41 0.00613740319 -0.0550000332 0.636867344 0.00866025407 1 
-0.0550000332 0.636867344 0.0259807669 4.59135442e-41 0.00977345649 -0.0550000332 0.636867344 0.0259807669 1 
-0.0550000332 0.636867344 0.112583309 4.59135442e-41 0.00762173021 -0.0550000332 0.636867344 0.112583309 1 
-0.0550000332 0.636867344 0.129903823 4.59135442e-41 0.00153272774 -0.0550000332 0.636867344 0.129903823 1 
-0.0550000332 0.832826555 -0.0952627808 4.59135442e-41 0.00490596471 -0.0550000332 0.832826555 -0.0952627808 1 
-0.0550000332 0.849156499 -0.11258328 4.59135442e-41 0.00915840175 -0.0550000332 0.849156499 -0.11258328 1 
-0.0550000332 0.849156499 -0.0952627808 4.59135442e-41 0.000941631792 -0.0550000332 0.849156499 -0.0952627808 1 
-0.0550000332 0.865486443 -0.129903793 4.59135442e-41 0.00658530463 -0.0550000332 0.865486443 -0.129903793 1 
-0.0550000332 0.865486443 -0.11258328 4.59135442e-41 0.00350922905 -0.0550000332 0.865486443 -0.11258328 1 
-0.0550000332 0.881816328 -0.129903793 4.59135442e-41 0.0059076366 -0.0550000332 0.881816328 -0.129903793 1 
-0.0550000332 0.898146272 -0.129903793 4.59135442e-41 0.000511105813 -0.0550000332 0.898146272 -0.129903793 1 
-0.0450000428 0.179629236 -0.0952627808 4.59135442e-41 0.00789251737 -0.0450000428 0.179629236 -0.0952627808 1 
-0.0450000428 0.179629236 0.216506362 4.59135442e-41 0.00570287975 -0.0450000428 0.179629236 0.216506362 1 
-0.0450000428 0.179629236 0.233826876 4.59135442e-41 0.00601153914 -0.0450000428 0.179629236 0.233826876 1 
-0.0450000428 0.195959166 -0.0779422671 4.59135442e-41 0.00442936132 -0.0450000428 0.195959166 -0.0779422671 1 
-0.0450000428 0.195959166 -0.060621772 4.59135442e-41 0.000933709031 -0.0450000428 0.195959166 -0.060621772 1 
-0.0450000428 0.195959166 -0.0433012582 4.59135442e-41 0.00135018385 -0.0450000428 0.195959166 -0.0433012582 1 
-0.0450000428 0.195959166 -0.0259807445 4.59135442e-41 0.00195160951 -0.0450000428 0.195959166 -0.0259807445 1 
-0.0450000428 0.195959166 -0.00866022985 4.59135442e-41 0.00224029808 -0.0450000428 0.195959166 -0.00866022985 1 
-0.0450000428 0.195959166 0.00866025407 4.59135442e-41 0.00285956101 -0.0450000428 0.195959166 0.00866025407 1 
-0.0450000428 0.195959166 0.0259807669 4.59135442e-41 0.00339457998 -0.0450000428 0.195959166 0.0259807669 1 
-0.0450000428 0.195959166 0.0433012806 4.59135442e-41 0.00369653828 -0.0450000428 0.195959166 0.0433012806 1 
-0.0450000428 0.195959166 0.0606217943 4.59135442e-41 0.00397518789 -0.0450000428 0.195959166 0.0606217943 1 
-0.0450000428 0.195959166 0.0779423118 4.59135442e-41 0.00407078303 -0.0450000428 0.195959166 0.0779423118 1 
-0.0450000428 0.195959166 0.0952628255 4.59135442e-41 0.0041069421 -0.0450000428 0.195959166 0.0952628255 1 
-0.0450000428 0.195959166 0.112583309 4.59135442e-41 0.00350982859 -0.0450000428 0.195959166 0.112583309 1 
-0.0450000428 0.195959166 0.129903823 4.59135442e-41 0.00318862521 -0.0450000428 0.195959166 0.129903823 1 
-0.0450000428 0.195959166 0.147224337 4.59135442e-41 0.00212798058 -0.0450000428 0.195959166 0.147224337 1 
-0.0450000428 0.195959166 0.164544851 4.59135442e-41 0.000935201359 -0.0450000428 0.195959166 0.164544851 1 
-0.0450000428 0.195959166 0.181865335 4.59135442e-41 0.000585561327 -0.0450000428 0.195959166 0.181865335 1 
-0.0450000428 0.195959166 0.199185848 4.59135442e-41 0.00744651025 -0.0450000428 0.195959166 0.199185848 1 
-0.0450000428 0.212289095 -0.129903793 4.59135442e-41 3.22177148e-05 -0.0450000428 0.212289095 -0.129903793 1 
-0.0450000428 0.228619039 -0.129903793 4.59135442e-41 0.00957095809 -0.0450000428 0.228619039 -0.129903793 1 
-0.0450000428 0.228619039 0.233826876 4.59135442e-41 0.00517032668 -0.0450000428 0.228619039 0.233826876 1 
-0.0450000428 0.244948968 -0.147224307 4.59135442e-41 0.00621496607 -0.0450000428 0.244948968 -0.147224307 1 
-0.0450000428 0.261278898 0.251147389 4.59135442e-41 0.00713692931 -0.0450000428 0.261278898 0.251147389 1 
-0.0450000428 0.277608812 -0.164544806 4.59135442e-41 0.00350835011 -0.0450000428 0.277608812 -0.164544806 1 
-0.0450000428 0.293938756 -0.164544806 4.59135442e-41 0.00556627521 -0.0450000428 0.293938756 -0.164544806 1 
-0.0450000428 0.293938756 0.268467903 4.59135442e-41 0.0043955557 -0.0450000428 0.293938756 0.268467903 1 
-0.0450000428 0.326598644 0.268467903 4.59135442e-41 0.0097167464 -0.0450000428 0.326598644 0.268467903 1 
-0.0450000428 0.342928559 0.268467903 4.59135442e-41 0.00893740915 -0.0450000428 0.342928559 0.268467903 1 
-0.0450000428 0.359258503 -0.18186532 4.59135442e-41 0.00434528198 -0.0450000428 0.359258503 -0.18186532 1 
-0.0450000428 0.375588417 -0.18186532 4.59135442e-41 0.00702383323 -0.0450000428 0.375588417 -0.18186532 1 
-0.0450000428 0.375588417 0.285788417 4.59135442e-41 0.00077828858 -0.0450000428 0.375588417 0.285788417 1 
-0.0450000428 0.391918361 -0.18186532 4.59135442e-41 0.00703074643 -0.0450000428 0.391918361 -0.18186532 1 
-0.0450000428 0.391918361 0.285788417 4.59135442e-41 0.00346661429 -0.0450000428 0.391918361 0.285788417 1 
-0.0450000428 0.408248305 -0.18186532 4.59135442e-41 0.00798337813 -0.0450000428 0.408248305 -0.18186532 1 
-0.0450000428 0.408248305 0.285788417 4.59135442e-41 0.00405124202 -0.0450000428 0.408248305 0.285788417 1 
-0.0450000428 0.42457822 -0.18186532 4.59135442e-41 0.00815606676 -0.0450000428 0.42457822 -0.18186532 1 
-0.0450000428 0.42457822 0.285788417 4.59135442e-41 0.00187565922 -0.0450000428 0.42457822 0.285788417 1 
-0.0450000428 0.440908164 -0.18186532 4.59135442e-41 0.0025838716 -0.0450000428 0.440908164 -0.18186532 1 
-0.0450000428 0.473568022 -0.164544806 4.59135442e-41 0.00245837122 -0.0450000428 0.473568022 -0.164544806 1 
-0.0450000428 0.473568022 0.268467903 4.59135442e-41 0.00504637277 -0.0450000428 0.473568022 0.268467903 1 
-0.0450000428 0.489897966 -0.129903793 4.59135442e-41 0.00505181262 -0.0450000428 0.489897966 -0.129903793 1 
-0.0450000428 0.489897966 0.251147389 4.59135442e-41 0.00427972712 -0.0450000428 0.489897966 0.251147389 1 
-0.0450000428 0.506227851 -0.11258328 4.59135442e-41 0.00782846287 -0.0450000428 0.506227851 -0.11258328 1 
-0.0450000428 0.506227851 0.216506362 4.59135442e-41 0.00412992574 -0.0450000428 0.506227851 0.216506362 1 
-0.0450000428 0.522557855 -0.11258328 4.59135442e-41 0.00308836624 -0.0450000428 0.522557855 -0.11258328 1 
-0.0450000428 0.522557855 0.216506362 4.59135442e-41 0.00194355077 -0.0450000428 0.522557855 0.216506362 1 
-0.0450000428 0.538887739 0.216506362 4.59135442e-41 0.000875886122 -0.0450000428 0.538887739 0.216506362 1 
-0.0450000428 0.555217683 -0.0952627808 4.59135442e-41 0.00716233952 -0.0450000428 0.555217683 -0.0952627808 1 
-0.0450000428 0.571547627 -0.0779422671 4.59135442e-41 0.00714637386 -0.0450000428 0.571547627 -0.0779422671 1 
-0.0450000428 0.571547627 0.199185848 4.59135442e-41 0.00419451669 -0.0450000428 0.571547627 0.199185848 1 
-0.0450000428 0.587877572 0.181865335 4.59135442e-41 0.00965244137 -0.0450000428 0.587877572 0.181865335 1 
-0.0450000428 0.604207516 -0.060621772 4.59135442e-41 0.00138946727 -0.0450000428 0.604207516 -0.060621772 1 
-0.0450000428 0.6205374 -0.0433012582 4.59135442e-41 0.00190034334 -0.0450000428 0.6205374 -0.0433012582 1 
-0.0450000428 0.6205374 0.147224337 4.59135442e-41 0.00928115752 -0.0450000428 0.6205374 0.147224337 1 
-0.0450000428 0.636867344 -0.00866022985 4.59135442e-41 0.00345443678 -0.0450000428 0.636867344 -0.00866022985 1 
-0.0450000428 0.636867344 0.00866025407 4.59135442e-41 0.00830374658 -0.0450000428 0.636867344 0.00866025407 1 
-0.0450000428 0.636867344 0.112583309 4.59135442e-41 0.00980256032 -0.0450000428 0.636867344 0.112583309 1 
-0.0450000428 0.636867344 0.129903823 4.59135442e-41 0.00450358586 -0.0450000428 0.636867344 0.129903823 1 
-0.0450000428 0.865486443 -0.129903793 4.59135442e-41 0.00138786668 -0.0450000428 0.865486443 -0.129903793 1 
-0.0350000225 0.179629236 -0.0952627808 4.59135442e-41 0.00869193859 -0.0350000225 0.179629236 -0.0952627808 1 
-0.0350000225 0.179629236 0.216506362 4.59135442e-41 0.0060587828 -0.0350000225 0.179629236 0.216506362 1 
-0.0350000225 0.179629236 0.233826876 4.59135442e-41 0.00522592198 -0.0350000225 0.179629236 0.233826876 1 
-0.0350000225 0.195959166 -0.0779422671 4.59135442e-41 0.00524690514 -0.0350000225 0.195959166 -0.0779422671 1 
-0.0350000225 0.195959166 -0.060621772 4.59135442e-41 0.000757326488 -0.0350000225 0.195959166 -0.060621772 1 
-0.0350000225 0.195959166 -0.0433012582 4.59135442e-41 0.00103018607 -0.0350000225 0.195959166 -0.0433012582 1 
-0.0350000225 0.195959166 -0.0259807445 4.59135442e-41 0.00144882232 -0.0350000225 0.195959166 -0.0259807445 1 
-0.0350000225 0.195959166 -0.00866022985 4.59135442e-41 0.00175846799 -0.0350000225 0.195959166 -0.00866022985 1 
-0.0350000225 0.195959166 0.00866025407 4.59135442e-41 0.0024864634 -0.0350000225 0.195959166 0.00866025407 1 
-0.0350000225 0.195959166 0.0259807669 4.59135442e-41 0.00307347812 -0.0350000225 0.195959166 0.0259807669 1 
-0.0350000225 0.195959166 0.0433012806 4.59135442e-41 0.00339792529 -0.0350000225 0.195959166 0.0433012806 1 
-0.0350000225 0.195959166 0.0606217943 4.59135442e-41 0.00381771242 -0.0350000225 0.195959166 0.0606217943 1 
-0.0350000225 0.195959166 0.0779423118 4.59135442e-41 0.00403709942 -0.0350000225 0.195959166 0.0779423118 1 
-0.0350000225 0.195959166 0.0952628255 4.59135442e-41 0.0040667085 -0.0350000225 0.195959166 0.0952628255 1 
-0.0350000225 0.195959166 0.112583309 4.59135442e-41 0.00344857061 -0.0350000225 0.195959166 0.112583309 1 
-0.0350000225 0.195959166 0.129903823 4.59135442e-41 0.00279570906 -0.0350000225 0.195959166 0.129903823 1 
-0.0350000225 0.195959166 0.147224337 4.59135442e-41 0.00174185529 -0.0350000225 0.195959166 0.147224337 1 
-0.0350000225 0.195959166 0.164544851 4.59135442e-41 0.00103494246 -0.0350000225 0.195959166 0.164544851 1 
-0.0350000225 0.195959166 0.181865335 4.59135442e-41 0.000424068625 -0.0350000225 0.195959166 0.181865335 1 
-0.0350000225 0.195959166 0.199185848 4.59135442e-41 0.00669953041 -0.0350000225 0.195959166 0.199185848 1 
-0.0350000225 0.195959166 0.233826876 4.59135442e-41 0.009690281 -0.0350000225 0.195959166 0.233826876 1 
-0.0350000225 0.212289095 -0.129903793 4.59135442e-41 0.00047544582 -0.0350000225 0.212289095 -0.129903793 1 
-0.0350000225 0.212289095 0.233826876 4.59135442e-41 0.00915338658 -0.0350000225 0.212289095 0.233826876 1 
-0.0350000225 0.228619039 -0.129903793 4.59135442e-41 0.00977850892 -0.0350000225 0.228619039 -0.129903793 1 
-0.0350000225 0.228619039 0.233826876 4.59135442e-41 0.00294976472 -0.0350000225 0.228619039 0.233826876 1 
-0.0350000225 0.244948968 -0.147224307 4.59135442e-41 0.00588945067 -0.0350000225 0.244948968 -0.147224307 1 
-0.0350000225 0.261278898 0.251147389 4.59135442e-41 0.00923632365 -0.0350000225 0.261278898 0.251147389 1 
-0.0350000225 0.277608812 -0.164544806 4.59135442e-41 0.00111680059 -0.0350000225 0.277608812 -0.164544806 1 
-0.0350000225 0.293938756 -0.164544806 4.59135442e-41 0.0052754241 -0.0350000225 0.293938756 -0.164544806 1 
-0.0350000225 0.293938756 0.268467903 4.59135442e-41 0.00528386235 -0.0350000225 0.293938756 0.268467903 1 
-0.0350000225 0.359258503 -0.18186532 4.59135442e-41 0.000318111619 -0.0350000225 0.359258503 -0.18186532 1 
-0.0350000225 0.359258503 0.285788417 4.59135442e-41 0.00285394583 -0.0350000225 0.359258503 0.285788417 1 
-0.0350000225 0.375588417 -0.18186532 4.59135442e-41 0.00394569617 -0.0350000225 0.375588417 -0.18186532 1 
-0.0350000225 0.375588417 0.285788417 4.59135442e-41 0.00437441282 -0.0350000225 0.375588417 0.285788417 1 
-0.0350000225 0.391918361 -0.18186532 4.59135442e-41 0.00739869848 -0.0350000225 0.391918361 -0.18186532 1 
-0.0350000225 0.391918361 0.285788417 4.59135442e-41 0.00279192673 -0.0350000225 0.391918361 0.285788417 1 
-0.0350000225 0.408248305 -0.18186532 4.59135442e-41 0.00684763165 -0.0350000225 0.408248305 -0.18186532 1 
-0.0350000225 0.408248305 0.285788417 4.59135442e-41 0.00161502289 -0.0350000225 0.408248305 0.285788417 1 
-0.0350000225 0.42457822 -0.18186532 4.59135442e-41 0.00690722885 -0.0350000225 0.42457822 -0.18186532 1 
-0.0350000225 0.42457822 0.285788417 4.59135442e-41 0.000139526383 -0.0350000225 0.42457822 0.285788417 1 
-0.0350000225 0.440908164 -0.18186532 4.59135442e-41 0.00108907465 -0.0350000225 0.440908164 -0.18186532 1 
-0.0350000225 0.473568022 -0.164544806 4.59135442e-41 0.00215728069 -0.0350000225 0.473568022 -0.164544806 1 
-0.0350000225 0.473568022 0.268467903 4.59135442e-41 0.00582098961 -0.0350000225 0.473568022 0.268467903 1 
-0.0350000225 0.489897966 -0.129903793 4.59135442e-41 0.00555620249 -0.0350000225 0.489897966 -0.129903793 1 
-0.0350000225 0.489897966 0.251147389 4.59135442e-41 0.00509159593 -0.0350000225 0.489897966 0.251147389 1 
-0.0350000225 0.506227851 -0.11258328 4.59135442e-41 0.00532000558 -0.0350000225 0.506227851 -0.11258328 1 
-0.0350000225 0.506227851 0.216506362 4.59135442e-41 0.00477481121 -0.0350000225 0.506227851 0.216506362 1 
-0.0350000225 0.522557855 -0.11258328 4.59135442e-41 0.00241119112 -0.0350000225 0.522557855 -0.11258328 1 
-0.0350000225 0.522557855 0.216506362 4.59135442e-41 0.00276545575 -0.0350000225 0.522557855 0.216506362 1 
-0.0350000225 0.538887739 -0.11258328 4.59135442e-41 0.000937329198 -0.0350000225 0.538887739 -0.11258328 1 
-0.0350000225 0.538887739 0.216506362 4.59135442e-41 0.00243057613 -0.0350000225 0.538887739 0.216506362 1 
-0.0350000225 0.555217683 -0.0952627808 4.59135442e-41 0.00892152265 -0.0350000225 0.555217683 -0.0952627808 1 
-0.0350000225 0.571547627 -0.0779422671 4.59135442e-41 0.00809234101 -0.0350000225 0.571547627 -0.0779422671 1 
-0.0350000225 0.571547627 0.199185848 4.59135442e-41 0.00446663424 -0.0350000225 0.571547627 0.199185848 1 
-0.0350000225 0.604207516 -0.060621772 4.59135442e-41 0.00227936124 -0.0350000225 0.604207516 -0.060621772 1 
-0.0350000225 0.604207516 0.181865335 4.59135442e-41 0.000691563473 -0.0350000225 0.604207516 0.181865335 1 
-0.0350000225 0.6205374 -0.0433012582 4.59135442e-41 0.00448804256 -0.0350000225 0.6205374 -0.0433012582 1 
-0.0350000225 0.6205374 0.164544851 4.59135442e-41 0.0016784186 -0.0350000225 0.6205374 0.164544851 1 
-0.0350000225 0.636867344 -0.00866022985 4.59135442e-41 0.00534893293 -0.0350000225 0.636867344 -0.00866022985 1 
-0.0350000225 0.636867344 0.129903823 4.59135442e-41 0.00646810699 -0.0350000225 0.636867344 0.129903823 1 
-0.025000032 0.179629236 -0.11258328 4.59135442e-41 0.00903820712 -0.025000032 0.179629236 -0.11258328 1 
-0.025000032 0.179629236 -0.0952627808 4.59135442e-41 0.00914517138 -0.025000032 0.179629236 -0.0952627808 1 
-0.025000032 0.179629236 0.216506362 4.59135442e-41 0.00597039703 -0.025000032 0.179629236 0.216506362 1 
-0.025000032 0.179629236 0.233826876 4.59135442e-41 0.00404511625 -0.025000032 0.179629236 0.233826876 1 
-0.025000032 0.195959166 -0.0779422671 4.59135442e-41 0.00627395837 -0.025000032 0.195959166 -0.0779422671 1 
-0.025000032 0.195959166 -0.060621772 4.59135442e-41 0.000465718418 -0.025000032 0.195959166 -0.060621772 1 
-0.025000032 0.195959166 -0.0433012582 4.59135442e-41 0.000715948583 -0.025000032 0.195959166 -0.0433012582 1 
-0.025000032 0.195959166 -0.0259807445 4.59135442e-41 0.00128475414 -0.025000032 0.195959166 -0.0259807445 1 
-0.025000032 0.195959166 -0.00866022985 4.59135442e-41 0.00169825368 -0.025000032 0.195959166 -0.00866022985 1 
-0.025000032 0.195959166 0.00866025407 4.59135442e-41 0.00227107923 -0.025000032 0.195959166 0.00866025407 1 
-0.025000032 0.195959166 0.0259807669 4.59135442e-41 0.00283119106 -0.025000032 0.195959166 0.0259807669 1 
-0.025000032 0.195959166 0.0433012806 4.59135442e-41 0.00330214133 -0.025000032 0.195959166 0.0433012806 1 
-0.025000032 0.195959166 0.0606217943 4.59135442e-41 0.00388135761 -0.025000032 0.195959166 0.0606217943 1 
-0.025000032 0.195959166 0.0779423118 4.59135442e-41 0.00412674341 -0.025000032 0.195959166 0.0779423118 1 
-0.025000032 0.195959166 0.0952628255 4.59135442e-41 0.00367396302 -0.025000032 0.195959166 0.0952628255 1 
-0.025000032 0.195959166 0.112583309 4.59135442e-41 0.00308567379 -0.025000032 0.195959166 0.112583309 1 
-0.025000032 0.195959166 0.129903823 4.59135442e-41 0.00253285817 -0.025000032 0.195959166 0.129903823 1 
-0.025000032 0.195959166 0.147224337 4.59135442e-41 0.00180132489 -0.025000032 0.195959166 0.147224337 1 
-0.025000032 0.195959166 0.164544851 4.59135442e-41 0.000461228308 -0.025000032 0.195959166 0.164544851 1 
-0.025000032 0.195959166 0.181865335 4.59135442e-41 0.00066882337 -0.025000032 0.195959166 0.181865335 1 
-0.025000032 0.195959166 0.233826876 4.59135442e-41 0.00697054621 -0.025000032 0.195959166 0.233826876 1 
-0.025000032 0.212289095 0.233826876 4.59135442e-41 0.0061892909 -0.025000032 0.212289095 0.233826876 1 
-0.025000032 0.228619039 -0.129903793 4.59135442e-41 0.00911195017 -0.025000032 0.228619039 -0.129903793 1 
-0.025000032 0.228619039 0.233826876 4.59135442e-41 0.00171063188 -0.025000032 0.228619039 0.233826876 1 
-0.025000032 0.244948968 -0.147224307 4.59135442e-41 0.00534081319 -0.025000032 0.244948968 -0.147224307 1 
-0.025000032 0.244948968 0.251147389 4.59135442e-41 0.000765152392 -0.025000032 0.244948968 0.251147389 1 
-0.025000032 0.277608812 0.268467903 4.59135442e-41 0.00134909863 -0.025000032 0.277608812 0.268467903 1 
-0.025000032 0.293938756 -0.164544806 4.59135442e-41 0.00494987145 -0.025000032 0.293938756 -0.164544806 1 
-0.025000032 0.293938756 0.268467903 4.59135442e-41 0.00323821069 -0.025000032 0.293938756 0.268467903 1 
-0.025000032 0.359258503 0.285788417 4.59135442e-41 0.00435812911 -0.025000032 0.359258503 0.285788417 1 
-0.025000032 0.375588417 -0.18186532 4.59135442e-41 0.00192207366 -0.025000032 0.375588417 -0.18186532 1 
-0.025000032 0.375588417 0.285788417 4.59135442e-41 0.00732294796 -0.025000032 0.375588417 0.285788417 1 
-0.025000032 0.391918361 -0.18186532 4.59135442e-41 0.0052569313 -0.025000032 0.391918361 -0.18186532 1 
-0.025000032 0.391918361 0.285788417 4.59135442e-41 0.00480851065 -0.025000032 0.391918361 0.285788417 1 
-0.025000032 0.408248305 -0.18186532 4.59135442e-41 0.00546737714 -0.025000032 0.408248305 -0.18186532 1 
-0.025000032 0.408248305 0.285788417 4.59135442e-41 0.000963986793 -0.025000032 0.408248305 0.285788417 1 
-0.025000032 0.42457822 -0.18186532 4.59135442e-41 0.005564366 -0.025000032 0.42457822 -0.18186532 1 
-0.025000032 0.42457822 0.285788417 4.59135442e-41 0.00013491248 -0.025000032 0.42457822 0.285788417 1 
-0.025000032 0.473568022 -0.164544806 4.59135442e-41 0.00162669749 -0.025000032 0.473568022 -0.164544806 1 
-0.025000032 0.473568022 0.268467903 4.59135442e-41 0.00587047124 -0.025000032 0.473568022 0.268467903 1 
-0.025000032 0.489897966 -0.129903793 4.59135442e-41 0.00593391154 -0.025000032 0.489897966 -0.129903793 1 
-0.025000032 0.489897966 0.251147389 4.59135442e-41 0.00561272819 -0.025000032 0.489897966 0.251147389 1 
-0.025000032 0.506227851 -0.11258328 4.59135442e-41 0.00389328715 -0.025000032 0.506227851 -0.11258328 1 
-0.025000032 0.506227851 0.216506362 4.59135442e-41 0.0040884926 -0.025000032 0.506227851 0.216506362 1 
-0.025000032 0.522557855 -0.11258328 4.59135442e-41 0.00186395925 -0.025000032 0.522557855 -0.11258328 1 
-0.025000032 0.522557855 0.216506362 4.59135442e-41 0.00364307035 -0.025000032 0.522557855 0.216506362 1 
-0.025000032 0.538887739 0.216506362 4.59135442e-41 0.00230286364 -0.025000032 0.538887739 0.216506362 1 
-0.025000032 0.555217683 -0.0952627808 4.59135442e-41 0.00854737032 -0.025000032 0.555217683 -0.0952627808 1 
-0.025000032 0.571547627 -0.0779422671 4.59135442e-41 0.00832159538 -0.025000032 0.571547627 -0.0779422671 1 
-0.025000032 0.571547627 0.199185848 4.59135442e-41 0.00502454536 -0.025000032 0.571547627 0.199185848 1 
-0.025000032 0.604207516 -0.060621772 4.59135442e-41 0.00137004175 -0.025000032 0.604207516 -0.060621772 1 
-0.025000032 0.604207516 0.181865335 4.59135442e-41 0.00180396007 -0.025000032 0.604207516 0.181865335 1 
-0.025000032 0.6205374 -0.0433012582 4.59135442e-41 0.00461270707 -0.025000032 0.6205374 -0.0433012582 1 
-0.025000032 0.6205374 0.164544851 4.59135442e-41 0.00260948273 -0.025000032 0.6205374 0.164544851 1 
-0.025000032 0.636867344 -0.0259807445 4.59135442e-41 0.000341689971 -0.025000032 0.636867344 -0.0259807445 1 
-0.025000032 0.636867344 -0.00866022985 4.59135442e-41 0.00675758952 -0.025000032 0.636867344 -0.00866022985 1 
-0.025000032 0.636867344 0.129903823 4.59135442e-41 0.00783063192 -0.025000032 0.636867344 0.129903823 1 
-0.025000032 0.653197289 0.0433012806 4.59135442e-41 0.000659213983 -0.025000032 0.653197289 0.0433012806 1 
-0.025000032 0.653197289 0.0606217943 4.59135442e-41 0.00153607444 -0.025000032 0.653197289 0.0606217943 1 
-0.025000032 0.653197289 0.0779423118 4.59135442e-41 0.00129669486 -0.025000032 0.653197289 0.0779423118 1 
-0.0150000406 0.179629236 -0.11258328 4.59135442e-41 0.00783806201 -0.0150000406 0.179629236 -0.11258328 1 
-0.0150000406 0.179629236 -0.0952627808 4.59135442e-41 0.00908494554 -0.0150000406 0.179629236 -0.0952627808 1 
-0.0150000406 0.179629236 0.199185848 4.59135442e-41 0.000585457252 -0.0150000406 0.179629236 0.199185848 1 
-0.0150000406 0.179629236 0.216506362 4.59135442e-41 0.00640901411 -0.0150000406 0.179629236 0.216506362 1 
-0.0150000406 0.179629236 0.233826876 4.59135442e-41 0.00245265546 -0.0150000406 0.179629236 0.233826876 1 
-0.0150000406 0.195959166 -0.0779422671 4.59135442e-41 0.00743346382 -0.0150000406 0.195959166 -0.0779422671 1 
-0.0150000406 0.195959166 -0.060621772 4.59135442e-41 8.24028248e-05 -0.0150000406 0.195959166 -0.060621772 1 
-0.0150000406 0.195959166 -0.0433012582 4.59135442e-41 0.000448199571 -0.0150000406 0.195959166 -0.0433012582 1 
-0.0150000406 0.195959166 -0.0259807445 4.59135442e-41 0.000767500082 -0.0150000406 0.195959166 -0.0259807445 1 
-0.0150000406 0.195959166 -0.00866022985 4.59135442e-41 0.00132053462 -0.0150000406 0.195959166 -0.00866022985 1 
-0.0150000406 0.195959166 0.00866025407 4.59135442e-41 0.0023239539 -0.0150000406 0.195959166 0.00866025407 1 
-0.0150000406 0.195959166 0.0259807669 4.59135442e-41 0.0031904371 -0.0150000406 0.195959166 0.0259807669 1 
-0.0150000406 0.195959166 0.0433012806 4.59135442e-41 0.00527138775 -0.0150000406 0.195959166 0.0433012806 1 
-0.0150000406 0.195959166 0.0606217943 4.59135442e-41 0.0062250453 -0.0150000406 0.195959166 0.0606217943 1 
-0.0150000406 0.195959166 0.0779423118 4.59135442e-41 0.00544232735 -0.0150000406 0.195959166 0.0779423118 1 
-0.0150000406 0.195959166 0.0952628255 4.59135442e-41 0.00366242905 -0.0150000406 0.195959166 0.0952628255 1 
-0.0150000406 0.195959166 0.112583309 4.59135442e-41 0.00308893155 -0.0150000406 0.195959166 0.112583309 1 
-0.0150000406 0.195959166 0.129903823 4.59135442e-41 0.0025296798 -0.0150000406 0.195959166 0.129903823 1 
-0.0150000406 0.195959166 0.147224337 4.59135442e-41 0.00145577523 -0.0150000406 0.195959166 0.147224337 1 
-0.0150000406 0.195959166 0.164544851 4.59135442e-41 0.000343002117 -0.0150000406 0.195959166 0.164544851 1 
-0.0150000406 0.195959166 0.181865335 4.59135442e-41 0.000168295752 -0.0150000406 0.195959166 0.181865335 1 
-0.0150000406 0.195959166 0.233826876 4.59135442e-41 0.00396855781 -0.0150000406 0.195959166 0.233826876 1 
-0.0150000406 0.212289095 0.233826876 4.59135442e-41 0.0029771016 -0.0150000406 0.212289095 0.233826876 1 
-0.0150000406 0.228619039 -0.129903793 4.59135442e-41 0.00747997081 -0.0150000406 0.228619039 -0.129903793 1 
-0.0150000406 0.228619039 0.233826876 4.59135442e-41 0.00109039317 -0.0150000406 0.228619039 0.233826876 1 
-0.0150000406 0.244948968 -0.147224307 4.59135442e-41 0.0046876627 -0.0150000406 0.244948968 -0.147224307 1 
-0.0150000406 0.244948968 0.251147389 4.59135442e-41 0.00152813387 -0.0150000406 0.244948968 0.251147389 1 
-0.0150000406 0.261278898 -0.147224307 4.59135442e-41 0.00922496431 -0.0150000406 0.261278898 -0.147224307 1 
-0.0150000406 0.261278898 0.268467903 4.59135442e-41 0.000544053852 -0.0150000406 0.261278898 0.268467903 1 
-0.0150000406 0.277608812 0.268467903 4.59135442e-41 0.00269119348 -0.0150000406 0.277608812 0.268467903 1 
-0.0150000406 0.293938756 -0.164544806 4.59135442e-41 0.00246019871 -0.0150000406 0.293938756 -0.164544806 1 
-0.0150000406 0.293938756 0.268467903 4.59135442e-41 0.00179753487 -0.0150000406 0.293938756 0.268467903 1 
-0.0150000406 0.3102687 -0.164544806 4.59135442e-41 0.00858467724 -0.0150000406 0.3102687 -0.164544806 1 
-0.0150000406 0.3102687 0.268467903 4.59135442e-41 0.00888386834 -0.0150000406 0.3102687 0.268467903 1 
-0.0150000406 0.326598644 -0.164544806 4.59135442e-41 0.00851672329 -0.0150000406 0.326598644 -0.164544806 1 
-0.0150000406 0.342928559 -0.164544806 4.59135442e-41 0.00902669411 -0.0150000406 0.342928559 -0.164544806 1 
-0.0150000406 0.359258503 0.285788417 4.59135442e-41 0.00423810957 -0.0150000406 0.359258503 0.285788417 1 
-0.0150000406 0.375588417 0.285788417 4.59135442e-41 0.00809808169 -0.0150000406 0.375588417 0.285788417 1 
-0.0150000406 0.391918361 -0.18186532 4.59135442e-41 0.00120243803 -0.0150000406 0.391918361 -0.18186532 1 
-0.0150000406 0.391918361 0.285788417 4.59135442e-41 0.00575501239 -0.0150000406 0.391918361 0.285788417 1 
-0.0150000406 0.408248305 -0.18186532 4.59135442e-41 0.00297910394 -0.0150000406 0.408248305 -0.18186532 1 
-0.0150000406 0.408248305 0.285788417 4.59135442e-41 0.00161320157 -0.0150000406 0.408248305 0.285788417 1 
-0.0150000406 0.42457822 -0.18186532 4.59135442e-41 0.00379134761 -0.0150000406 0.42457822 -0.18186532 1 
-0.0150000406 0.42457822 0.285788417 4.59135442e-41 0.00132360857 -0.0150000406 0.42457822 0.285788417 1 
-0.0150000406 0.457238078 -0.164544806 4.59135442e-41 0.00939713605 -0.0150000406 0.457238078 -0.164544806 1 
-0.0150000406 0.473568022 -0.164544806 4.59135442e-41 0.000832427642 -0.0150000406 0.473568022 -0.164544806 1 
-0.0150000406 0.473568022 0.268467903 4.59135442e-41 0.00544027239 -0.0150000406 0.473568022 0.268467903 1 
-0.0150000406 0.489897966 -0.129903793 4.59135442e-41 0.0052844095 -0.0150000406 0.489897966 -0.129903793 1 
-0.0150000406 0.489897966 0.251147389 4.59135442e-41 0.00545878801 -0.0150000406 0.489897966 0.251147389 1 
-0.0150000406 0.506227851 -0.11258328 4.59135442e-41 0.0026131121 -0.0150000406 0.506227851 -0.11258328 1 
-0.0150000406 0.506227851 0.216506362 4.59135442e-41 0.00376467872 -0.0150000406 0.506227851 0.216506362 1 
-0.0150000406 0.522557855 -0.11258328 4.59135442e-41 0.000757130038 -0.0150000406 0.522557855 -0.11258328 1 
-0.0150000406 0.522557855 0.216506362 4.59135442e-41 0.00414083805 -0.0150000406 0.522557855 0.216506362 1 
-0.0150000406 0.538887739 0.216506362 4.59135442e-41 0.00172202452 -0.0150000406 0.538887739 0.216506362 1 
-0.0150000406 0.555217683 -0.0952627808 4.59135442e-41 0.00679124286 -0.0150000406 0.555217683 -0.0952627808 1 
-0.0150000406 0.571547627 -0.0779422671 4.59135442e-41 0.0094207935 -0.0150000406 0.571547627 -0.0779422671 1 
-0.0150000406 0.571547627 0.199185848 4.59135442e-41 0.0065412512 -0.0150000406 0.571547627 0.199185848 1 
-0.0150000406 0.604207516 -0.060621772 4.59135442e-41 0.000716014707 -0.0150000406 0.604207516 -0.060621772 1 
-0.0150000406 0.604207516 0.181865335 4.59135442e-41 0.00302961562 -0.0150000406 0.604207516 0.181865335 1 
-0.0150000406 0.6205374 -0.0433012582 4.59135442e-41 0.00254116044 -0.0150000406 0.6205374 -0.0433012582 1 
-0.0150000406 0.6205374 0.164544851 4.59135442e-41 0.00252616266 -0.0150000406 0.6205374 0.164544851 1 
-0.0150000406 0.636867344 -0.00866022985 4.59135442e-41 0.00738879666 -0.0150000406 0.636867344 -0.00866022985 1 
-0.0150000406 0.636867344 0.129903823 4.59135442e-41 0.0086946683 -0.0150000406 0.636867344 0.129903823 1 
-0.0150000406 0.636867344 0.147224337 4.59135442e-41 0.000596616301 -0.0150000406 0.636867344 0.147224337 1 
-0.0150000406 0.653197289 0.0259807669 4.59135442e-41 0.000516256492 -0.0150000406 0.653197289 0.0259807669 1 
-0.0150000406 0.653197289 0.0433012806 4.59135442e-41 0.0019953493 -0.0150000406 0.653197289 0.0433012806 1 
-0.0150000406 0.653197289 0.0606217943 4.59135442e-41 0.00284194294 -0.0150000406 0.653197289 0.0606217943 1 
-0.0150000406 0.653197289 0.0779423118 4.59135442e-41 0.00234286021 -0.0150000406 0.653197289 0.0779423118 1 
-0.0150000406 0.653197289 0.0952628255 4.59135442e-41 0.000791454397 -0.0150000406 0.653197289 0.0952628255 1 
-0.00500002038 0.179629236 -0.11258328 4.59135442e-41 0.00779162953 -0.00500002038 0.179629236 -0.11258328 1 
-0.00500002038 0.179629236 -0.0952627808 4.59135442e-41 0.00915332232 -0.00500002038 0.179629236 -0.0952627808 1 
-0.00500002038 0.179629236 0.0606217943 4.59135442e-41 0.00102689676 -0.00500002038 0.179629236 0.0606217943 1 
-0.00500002038 0.179629236 0.199185848 4.59135442e-41 0.0038919989 -0.00500002038 0.179629236 0.199185848 1 
-0.00500002038 0.179629236 0.216506362 4.59135442e-41 0.00632688636 -0.00500002038 0.179629236 0.216506362 1 
-0.00500002038 0.179629236 0.233826876 4.59135442e-41 0.00086187385 -0.00500002038 0.179629236 0.233826876 1 
-0.00500002038 0.195959166 -0.0779422671 4.59135442e-41 0.00783123821 -0.00500002038 0.195959166 -0.0779422671 1 
-0.00500002038 0.195959166 -0.060621772 4.59135442e-41 7.29021849e-06 -0.00500002038 0.195959166 -0.060621772 1 
-0.00500002038 0.195959166 -0.0433012582 4.59135442e-41 0.00018239225 -0.00500002038 0.195959166 -0.0433012582 1 
-0.00500002038 0.195959166 -0.0259807445 4.59135442e-41 0.00047417084 -0.00500002038 0.195959166 -0.0259807445 1 
-0.00500002038 0.195959166 -0.00866022985 4.59135442e-41 0.0010135551 -0.00500002038 0.195959166 -0.00866022985 1 
-0.00500002038 0.195959166 0.00866025407 4.59135442e-41 0.00290043186 -0.00500002038 0.195959166 0.00866025407 1 
-0.00500002038 0.195959166 0.0259807669 4.59135442e-41 0.00684974296 -0.00500002038 0.195959166 0.0259807669 1 
-0.00500002038 0.195959166 0.0952628255 4.59135442e-41 0.00643308833 -0.00500002038 0.195959166 0.0952628255 1 
-0.00500002038 0.195959166 0.112583309 4.59135442e-41 0.0029508071 -0.00500002038 0.195959166 0.112583309 1 
-0.00500002038 0.195959166 0.129903823 4.59135442e-41 0.00190395315 -0.00500002038 0.195959166 0.129903823 1 
-0.00500002038 0.195959166 0.147224337 4.59135442e-41 0.000964890525 -0.00500002038 0.195959166 0.147224337 1 
-0.00500002038 0.195959166 0.181865335 4.59135442e-41 0.00184703059 -0.00500002038 0.195959166 0.181865335 1 
-0.00500002038 0.195959166 0.233826876 4.59135442e-41 0.00100830244 -0.00500002038 0.195959166 0.233826876 1 
-0.00500002038 0.228619039 -0.129903793 4.59135442e-41 0.00498515647 -0.00500002038 0.228619039 -0.129903793 1 
-0.00500002038 0.228619039 0.233826876 4.59135442e-41 0.00131450105 -0.00500002038 0.228619039 0.233826876 1 
-0.00500002038 0.244948968 -0.147224307 4.59135442e-41 0.00443710806 -0.00500002038 0.244948968 -0.147224307 1 
-0.00500002038 0.244948968 0.251147389 4.59135442e-41 0.00234077638 -0.00500002038 0.244948968 0.251147389 1 
-0.00500002038 0.261278898 -0.147224307 4.59135442e-41 0.00672119856 -0.00500002038 0.261278898 -0.147224307 1 
-0.00500002038 0.261278898 0.268467903 4.59135442e-41 0.00251246174 -0.00500002038 0.261278898 0.268467903 1 
-0.00500002038 0.277608812 0.268467903 4.59135442e-41 0.00548929628 -0.00500002038 0.277608812 0.268467903 1 
-0.00500002038 0.293938756 -0.164544806 4.59135442e-41 0.000375663833 -0.00500002038 0.293938756 -0.164544806 1 
-0.00500002038 0.293938756 0.268467903 4.59135442e-41 0.00406652922 -0.00500002038 0.293938756 0.268467903 1 
-0.00500002038 0.3102687 -0.164544806 4.59135442e-41 0.00553135527 -0.00500002038 0.3102687 -0.164544806 1 
-0.00500002038 0.326598644 -0.164544806 4.59135442e-41 0.00742888404 -0.00500002038 0.326598644 -0.164544806 1 
-0.00500002038 0.342928559 -0.164544806 4.59135442e-41 0.00617817743 -0.00500002038 0.342928559 -0.164544806 1 
-0.00500002038 0.359258503 0.285788417 4.59135442e-41 0.00206118706 -0.00500002038 0.359258503 0.285788417 1 
-0.00500002038 0.375588417 0.285788417 4.59135442e-41 0.00644016825 -0.00500002038 0.375588417 0.285788417 1 
-0.00500002038 0.391918361 0.285788417 4.59135442e-41 0.00476566982 -0.00500002038 0.391918361 0.285788417 1 
-0.00500002038 0.408248305 -0.18186532 4.59135442e-41 0.000890469528 -0.00500002038 0.408248305 -0.18186532 1 
-0.00500002038 0.408248305 0.285788417 4.59135442e-41 0.00126841199 -0.00500002038 0.408248305 0.285788417 1 
-0.00500002038 0.42457822 0.285788417 4.59135442e-41 0.00132724247 -0.00500002038 0.42457822 0.285788417 1 
-0.00500002038 0.457238078 -0.164544806 4.59135442e-41 0.0068695927 -0.00500002038 0.457238078 -0.164544806 1 
-0.00500002038 0.473568022 0.268467903 4.59135442e-41 0.00505677052 -0.00500002038 0.473568022 0.268467903 1 
-0.00500002038 0.489897966 -0.129903793 4.59135442e-41 0.00451343972 -0.00500002038 0.489897966 -0.129903793 1 
-0.00500002038 0.489897966 0.251147389 4.59135442e-41 0.00604422623 -0.00500002038 0.489897966 0.251147389 1 
-0.00500002038 0.506227851 -0.11258328 4.59135442e-41 0.00194593833 -0.00500002038 0.506227851 -0.11258328 1 
-0.00500002038 0.506227851 0.216506362 4.59135442e-41 0.00540926447 -0.00500002038 0.506227851 0.216506362 1 
-0.00500002038 0.522557855 0.216506362 4.59135442e-41 0.00386660965 -0.00500002038 0.522557855 0.216506362 1 
-0.00500002038 0.555217683 -0.0952627808 4.59135442e-41 0.0046581421 -0.00500002038 0.555217683 -0.0952627808 1 
-0.00500002038 0.571547627 0.199185848 4.59135442e-41 0.00725185545 -0.00500002038 0.571547627 0.199185848 1 
-0.00500002038 0.587877572 -0.0779422671 4.59135442e-41 0.00164295768 -0.00500002038 0.587877572 -0.0779422671 1 
-0.00500002038 0.604207516 -0.060621772 4.59135442e-41 0.000396215968 -0.00500002038 0.604207516 -0.060621772 1 
-0.00500002038 0.604207516 0.181865335 4.59135442e-41 0.00317438086 -0.00500002038 0.604207516 0.181865335 1 
-0.00500002038 0.6205374 -0.0433012582 4.59135442e-41 0.00120815495 -0.00500002038 0.6205374 -0.0433012582 1 
-0.00500002038 0.6205374 0.164544851 4.59135442e-41 0.0026270682 -0.00500002038 0.6205374 0.164544851 1 
-0.00500002038 0.636867344 -0.00866022985 4.59135442e-41 0.00737310061 -0.00500002038 0.636867344 -0.00866022985 1 
-0.00500002038 0.636867344 0.129903823 4.59135442e-41 0.00901186187 -0.00500002038 0.636867344 0.129903823 1 
-0.00500002038 0.636867344 0.147224337 4.59135442e-41 0.000159705611 -0.00500002038 0.636867344 0.147224337 1 
-0.00500002038 0.653197289 0.0259807669 4.59135442e-41 0.0018021306 -0.00500002038 0.653197289 0.0259807669 1 
-0.00500002038 0.653197289 0.0433012806 4.59135442e-41 0.00318753673 -0.00500002038 0.653197289 0.0433012806 1 
-0.00500002038 0.653197289 0.0606217943 4.59135442e-41 0.00372418715 -0.00500002038 0.653197289 0.0606217943 1 
-0.00500002038 0.653197289 0.0779423118 4.59135442e-41 0.00355548342 -0.00500002038 0.653197289 0.0779423118 1 
-0.00500002038 0.653197289 0.0952628255 4.59135442e-41 0.00161428424 -0.00500002038 0.653197289 0.0952628255 1 
0.00499997009 0.179629236 -0.11258328 4.59135442e-41 0.00676530832 0.00499997009 0.179629236 -0.11258328 1 
0.00499997009 0.179629236 -0.0952627808 4.59135442e-41 0.00932608265 0.00499997009 0.179629236 -0.0952627808 1 
0.00499997009 0.179629236 -0.0779422671 4.59135442e-41 0.000560416083 0.00499997009 0.179629236 -0.0779422671 1 
0.00499997009 0.179629236 0.0259807669 4.59135442e-41 0.0032298998 0.00499997009 0.179629236 0.0259807669 1 
0.00499997009 0.179629236 0.0433012806 4.59135442e-41 0.00649781199 0.00499997009 0.179629236 0.0433012806 1 
0.00499997009 0.179629236 0.0606217943 4.59135442e-41 0.00677557196 0.00499997009 0.179629236 0.0606217943 1 
0.00499997009 0.179629236 0.0779423118 4.59135442e-41 0.00578468805 0.00499997009 0.179629236 0.0779423118 1 
0.00499997009 0.179629236 0.0952628255 4.59135442e-41 0.00128843228 0.00499997009 0.179629236 0.0952628255 1 
0.00499997009 0.179629236 0.199185848 4.59135442e-41 0.00443619629 0.00499997009 0.179629236 0.199185848 1 
0.00499997009 0.179629236 0.216506362 4.59135442e-41 0.00630456675 0.00499997009 0.179629236 0.216506362 1 
0.00499997009 0.195959166 -0.0779422671 4.59135442e-41 0.0092410082 0.00499997009 0.195959166 -0.0779422671 1 
0.00499997009 0.195959166 -0.060621772 4.59135442e-41 0.000840680674 0.00499997009 0.195959166 -0.060621772 1 
0.00499997009 0.195959166 -0.0259807445 4.59135442e-41 0.000468310522 0.00499997009 0.195959166 -0.0259807445 1 
0.00499997009 0.195959166 -0.00866022985 4.59135442e-41 0.0020860848 0.00499997009 0.195959166 -0.00866022985 1 
0.00499997009 0.195959166 0.00866025407 4.59135442e-41 0.006701665 0.00499997009 0.195959166 0.00866025407 1 
0.00499997009 0.195959166 0.112583309 4.59135442e-41 0.00462454837 0.00499997009 0.195959166 0.112583309 1 
0.00499997009 0.195959166 0.129903823 4.59135442e-41 0.00161794503 0.00499997009 0.195959166 0.129903823 1 
0.00499997009 0.195959166 0.147224337 4.59135442e-41 0.000417192467 0.00499997009 0.195959166 0.147224337 1 
0.00499997009 0.195959166 0.181865335 4.59135442e-41 0.00388915162 0.00499997009 0.195959166 0.181865335 1 
0.00499997009 0.228619039 -0.129903793 4.59135442e-41 0.00423217053 0.00499997009 0.228619039 -0.129903793 1 
0.00499997009 0.228619039 0.233826876 4.59135442e-41 0.0021911955 0.00499997009 0.228619039 0.233826876 1 
0.00499997009 0.244948968 -0.147224307 4.59135442e-41 0.00313937687 0.00499997009 0.244948968 -0.147224307 1 
0.00499997009 0.244948968 0.251147389 4.59135442e-41 0.00385401887 0.00499997009 0.244948968 0.251147389 1 
0.00499997009 0.261278898 -0.147224307 4.59135442e-41 0.00437256275 0.00499997009 0.261278898 -0.147224307 1 
0.00499997009 0.277608812 -0.147224307 4.59135442e-41 0.0090044681 0.00499997009 0.277608812 -0.147224307 1 
0.00499997009 0.277608812 0.268467903 4.59135442e-41 0.00264173932 0.00499997009 0.277608812 0.268467903 1 
